-0.059138 -0.205020 0.150875
-0.065374 -0.115881 0.160201
-0.081442 -0.077467 0.168485
0.034141 0.515762 0.782450
-0.002325 0.496800 0.812246
0.118397 -0.095834 0.252470
0.127244 -0.060305 0.256985
0.124077 -0.034255 0.266899
0.183821 0.199427 -0.232031
0.102621 0.349264 -0.278111
0.147538 0.313078 -0.246035
0.169978 0.263934 -0.225375
0.163876 0.278477 -0.192530
0.175517 0.246155 -0.201795
0.083278 0.354171 -0.296145
0.022109 0.366367 -0.331884
0.142847 0.221568 -0.371148
0.043433 0.291739 -0.403498
0.045017 0.350246 -0.335564
0.056553 0.360170 -0.308768
0.095744 0.103450 -0.438475
0.047265 0.170546 -0.448218
0.067500 0.044716 -0.448162
0.111155 0.008337 -0.432809
0.055559 -0.218273 -0.515956
0.075488 0.170291 -0.438594
0.125187 0.209350 -0.394858
0.150255 0.151496 -0.385616
0.169852 0.247774 -0.297272
0.170502 0.200167 -0.339642
0.174080 0.127873 -0.335929
0.130379 0.023899 -0.416129
0.056655 -0.199896 0.227679
0.041530 -0.176205 0.221743
0.049965 -0.580746 0.213511
0.045588 -0.546270 0.203091
0.068780 -0.558123 0.201152
0.089875 -0.586928 0.196576
0.016792 -0.454260 0.161269
0.027011 -0.535048 0.183876
0.046471 -0.245411 -0.529869
0.176490 0.118976 -0.251725
0.170444 0.057935 -0.274750
0.160081 0.001491 -0.286329
0.140205 -0.016727 -0.275720
0.062036 -0.356788 -0.485394
0.064836 -0.298989 -0.480601
0.098322 -0.185267 -0.424442
0.169545 0.082929 -0.343306
0.141871 -0.065179 -0.390634
0.052696 -0.439690 -0.527519
0.081930 -0.604797 -0.495844
0.106968 -0.601183 -0.488688
0.066824 -0.386446 -0.522941
0.102936 -0.160100 -0.435957
0.051193 -0.348847 -0.544449
0.070617 -0.623881 -0.421570
0.058809 -0.553857 -0.456834
0.012212 0.395153 0.656524
0.011636 0.425042 0.655211
0.047495 0.528038 0.668857
0.039517 0.555412 0.800564
-0.006508 0.540089 0.824838
-0.097514 0.378420 0.145535
-0.112173 0.355537 0.150649
-0.124018 0.388439 0.048853
-0.156386 0.333168 0.056812
-0.187297 0.297072 -0.009931
-0.211862 0.223828 0.003906
-0.211860 0.203444 -0.054745
-0.075626 -0.008001 -0.096506
0.003777 0.056973 -0.207403
0.075872 0.047025 -0.180991
0.090184 0.078354 -0.205939
-0.076136 0.071213 -0.206904
-0.047131 0.079585 -0.225948
-0.065787 0.046893 -0.186027
-0.079698 0.402377 0.136105
-0.050137 -0.001344 -0.128565
0.018852 0.007912 -0.148885
-0.011768 0.001841 -0.138106
0.154889 0.025773 0.002764
0.186850 0.073239 0.030563
0.183752 0.069801 0.055882
0.139222 0.006868 0.033842
0.135910 0.006005 0.004822
0.058871 0.004715 -0.136995
0.121087 0.028316 -0.115907
0.155090 0.044589 -0.074167
0.151512 0.033128 -0.049704
-0.146615 0.012784 0.043567
-0.208345 0.190517 0.066934
-0.211553 0.160981 0.038478
-0.203419 0.169541 0.086173
-0.069530 0.395991 0.258684
-0.068421 0.338652 0.347661
-0.105126 0.338580 0.288467
-0.094857 0.324033 0.332283
-0.134048 0.238260 0.359481
-0.024601 0.350822 0.357903
-0.048597 0.372913 0.329930
-0.014721 0.383303 0.333444
-0.112436 0.351580 0.199286
-0.178862 0.186464 0.142280
-0.176293 0.151858 0.145732
-0.165088 0.130978 0.160252
-0.155339 0.261016 0.153408
-0.079291 -0.018102 0.111456
-0.071822 -0.025089 0.071129
-0.046317 -0.018228 -0.094135
-0.117960 -0.008725 0.038589
-0.155754 0.314891 0.086870
-0.186081 0.287144 0.053907
-0.191672 0.285895 0.019825
-0.154710 0.035208 -0.050702
-0.184458 0.068528 -0.022082
-0.210529 0.136350 -0.025979
-0.214506 0.179082 0.010435
-0.205370 0.251688 0.006484
-0.101937 0.383364 0.110129
-0.089004 0.406035 0.103577
-0.078209 0.458398 0.060737
-0.044485 0.520303 0.035487
-0.072497 0.529532 -0.028234
-0.006226 0.443814 0.258996
-0.026321 0.100767 -0.254095
-0.021548 -0.341754 0.191475
-0.043337 -0.289868 0.203379
-0.053622 -0.088573 0.253565
-0.047261 0.284215 0.451358
-0.146801 0.153263 0.331406
-0.148796 0.223890 0.336334
-0.146385 0.254648 0.321643
-0.133399 0.285281 0.319220
-0.120341 0.019435 0.293082
-0.141579 -0.015314 0.244517
-0.140887 0.011752 0.250753
-0.040670 -0.145121 -0.418660
-0.060487 0.012171 -0.303774
-0.014189 0.076165 -0.378929
-0.074043 -0.060461 -0.313500
-0.055516 -0.110779 -0.367154
-0.070501 0.103352 -0.249229
-0.117151 -0.638070 0.190948
-0.056704 -0.266043 -0.529497
-0.058782 -0.295679 -0.537666
-0.102174 -0.578634 -0.459795
-0.088911 -0.550281 -0.466067
-0.039339 -0.374826 -0.549918
-0.071493 -0.434283 -0.512848
-0.108423 -0.595556 -0.488327
-0.030891 -0.296907 -0.559466
-0.055311 -0.530887 -0.505903
-0.035757 0.532024 0.739535
-0.043756 -0.063906 0.244087
-0.128177 0.113230 -0.202585
-0.123357 0.093732 -0.224139
-0.092768 -0.574776 0.181752
-0.055471 -0.435336 0.171705
-0.057003 -0.461239 0.177296
-0.088741 -0.186373 -0.464685
-0.119264 0.000070 -0.427987
-0.092885 -0.093994 -0.460026
-0.091099 -0.124158 -0.464519
-0.074766 -0.173803 -0.488682
-0.038353 0.540306 0.808346
-0.047251 0.566124 0.793152
-0.055413 0.490037 0.563647
-0.052315 0.332516 0.627821
-0.023304 0.176000 0.560688
-0.010034 0.103633 0.458433
-0.053976 0.453996 0.560611
-0.057677 0.413993 0.575639
-0.058484 0.415151 0.605092
-0.061617 0.358094 0.609477
-0.060718 0.386692 0.582430
-0.048663 0.421358 0.544278
-0.052286 0.331695 0.526459
-0.066365 0.518882 0.651372
-0.134000 -0.645393 -0.448985
-0.054020 -0.649177 -0.458584
-0.079697 -0.655534 -0.410669
-0.064646 -0.111207 -0.475852
-0.045925 -0.200652 -0.509181
-0.046829 -0.609156 0.223080
-0.039164 -0.637364 0.227581
-0.013612 -0.405229 0.136473
-0.029878 -0.501065 0.156145
-0.072953 -0.224993 0.220756
-0.074753 -0.105864 0.262317
-0.097080 -0.084671 0.270577
-0.093946 -0.039507 0.282412
-0.093795 -0.208408 0.217660
-0.066607 0.286320 0.502291
-0.076926 0.256293 0.500291
-0.078615 0.184867 0.457014
-0.072904 0.268937 0.530803
-0.050108 0.243627 0.591642
-0.070138 0.191102 0.496434
-0.080361 0.151552 0.408000
-0.185332 0.120558 0.220644
-0.172283 0.181787 0.200505
-0.159731 0.213952 0.192465
-0.146829 0.291200 0.264667
-0.120253 -0.048776 0.270219
-0.127082 0.076758 0.335007
-0.062706 0.076325 0.367460
-0.033440 0.078348 0.401398
-0.007120 0.054663 0.385715
-0.109705 0.172220 0.390994
-0.078774 0.257609 0.410875
-0.034590 -0.017491 0.276549
-0.036669 0.432983 0.175749
-0.068665 0.417165 0.190946
0.005002 0.559193 0.000458
-0.076775 0.203135 -0.429019
-0.069220 0.105175 -0.447682
-0.051736 0.032912 -0.445186
-0.058819 -0.071294 -0.464441
-0.033420 0.545596 -0.120381
-0.034383 0.502953 -0.155359
-0.070727 0.524626 -0.107520
-0.064105 0.467129 -0.158746
-0.089664 0.457990 -0.135772
-0.149534 0.327505 -0.133677
-0.143348 0.327645 -0.168178
-0.166782 0.273439 -0.166641
-0.165316 0.265596 -0.295808
-0.167308 0.241931 -0.318373
-0.157257 0.266866 -0.321939
-0.166970 0.219437 -0.337825
-0.157365 0.205257 -0.361392
-0.084589 0.233271 -0.414625
-0.093674 0.257781 -0.397980
-0.036659 0.249754 -0.432473
-0.113520 0.294382 -0.354704
-0.085368 0.328046 -0.341589
-0.063185 0.367236 -0.287515
-0.086976 0.355834 -0.289162
-0.053356 0.346240 -0.339064
-0.089960 0.500906 -0.099313
-0.061510 0.420180 -0.183935
-0.024162 0.442783 -0.196555
-0.120079 0.437923 -0.086739
-0.077413 0.499957 0.009711
-0.106242 -0.153929 -0.390673
-0.097157 -0.142471 -0.367214
-0.145177 0.012553 -0.259433
0.101057 -0.051349 0.279317
0.068016 -0.015997 0.286564
0.036458 -0.034763 0.189831
0.011726 0.585131 0.804779
0.033409 0.604068 0.689313
0.015483 0.647394 0.565280
-0.005667 0.621441 0.747678
0.033119 0.619239 0.507144
0.039698 0.509036 0.650238
0.008123 0.593208 0.500896
0.056338 0.305375 0.508000
0.056046 0.342225 0.540883
0.047139 0.402876 0.543734
0.061457 0.313517 0.599863
0.052294 0.453172 0.610264
0.107289 -0.569322 -0.479450
0.075436 -0.459135 -0.497639
0.067750 -0.493710 -0.472694
0.074099 -0.570814 -0.501702
0.043095 -0.394743 -0.482367
0.016390 -0.015032 0.306893
0.061597 0.347356 0.601921
0.076488 0.151815 0.410557
0.078669 0.250797 0.414637
0.056008 0.139125 0.459529
0.079735 0.220044 0.477788
0.057155 0.394515 0.571097
0.061329 0.348782 0.570386
0.033924 0.085921 0.409355
-0.005527 0.030534 0.364625
0.008455 0.085195 0.424410
0.000397 0.138077 0.521345
0.078999 0.046136 0.341969
-0.022520 0.276233 0.637040
0.037097 0.386697 0.645187
0.009565 0.158807 0.546946
0.000034 0.176245 0.571492
0.065582 0.203578 0.519513
0.061693 0.257828 0.570291
0.065419 0.240377 0.548943
-0.001361 0.234048 0.620565
0.058415 -0.464612 -0.474998
0.114488 0.024963 -0.245080
0.050408 -0.193396 -0.418899
0.078122 0.004948 -0.275553
0.072638 0.090918 -0.247863
0.178820 0.202310 -0.194071
0.181451 0.227142 -0.222576
0.159439 0.344479 -0.032033
0.147226 0.366295 -0.060759
0.119282 0.437054 -0.082493
0.090023 0.508663 -0.078627
0.051873 0.554546 -0.062696
0.146845 0.333677 -0.124981
0.105822 0.445995 -0.113806
0.035844 0.441205 -0.189733
0.082649 0.454108 -0.144543
0.090398 0.395589 -0.164473
0.112495 0.379807 -0.148211
0.125902 0.392738 -0.114899
0.006722 0.446080 -0.199765
0.049187 -0.111888 0.176365
0.040851 -0.150144 0.226566
0.041249 -0.078468 0.213194
0.093914 -0.024652 0.170918
0.127279 -0.020311 0.189250
0.123203 -0.065670 0.184986
0.111979 -0.107076 0.172190
0.142600 -0.052272 0.227120
0.146558 0.018059 0.231310
0.155857 0.257771 0.286868
0.076266 0.406175 0.165298
0.118719 0.337176 0.168600
0.175029 0.275150 0.096403
0.189528 0.263674 0.072920
0.207850 0.139656 0.030955
0.207590 0.160156 0.053619
0.201846 0.109523 -0.011660
0.162357 0.079040 -0.117821
0.188271 0.077855 0.000559
0.195958 0.109011 0.073917
0.198349 0.143223 0.089212
0.186431 0.238928 0.105666
0.152331 0.284956 0.136249
0.108156 0.358524 0.182697
0.138234 0.279102 0.205498
0.141614 0.282872 0.172984
0.167788 0.175898 0.185724
0.158403 0.206058 0.184724
0.177042 0.129263 0.187774
0.164241 0.119700 0.163296
0.172806 0.097822 0.178936
0.134895 0.005176 0.203172
0.124368 0.169391 0.379074
0.132325 0.073274 0.311533
0.133007 -0.003929 0.260511
0.152775 0.099811 0.289501
0.148350 0.159093 0.323462
0.141844 0.117838 0.312194
0.049995 0.301544 0.389436
0.122881 0.260873 0.358077
0.148825 0.248318 0.315575
0.174250 0.153522 0.268465
0.162370 0.153683 0.294505
0.131044 0.028806 0.147741
0.140863 0.288069 0.292816
0.000763 0.429746 0.285761
0.069335 0.382787 0.278280
-0.002286 0.498862 0.081029
0.028521 0.500508 0.067767
0.107569 -0.004194 0.107845
0.047962 -0.026866 0.084385
0.039551 -0.019865 0.148647
-0.014939 -0.017676 0.107153
0.016112 -0.013660 0.118927
0.022332 -0.034963 0.024543
0.041501 -0.034599 0.001218
-0.043358 -0.035098 -0.001628
-0.026956 -0.035090 0.025288
0.051469 0.395875 0.292907
0.059589 0.406172 0.258392
0.019346 0.445317 0.240863
0.008635 0.174927 -0.492311
0.015017 0.218014 -0.462827
0.085085 -0.203126 0.152906
0.051524 -0.288240 0.144238
0.038573 -0.338269 0.138406
0.045408 -0.419707 0.184172
0.035479 -0.180761 -0.444241
0.030715 -0.108380 -0.411889
0.043205 0.051660 -0.320509
0.054870 0.047645 -0.295469
0.026470 0.073845 -0.350465
0.058507 0.085393 -0.271529
0.057540 -0.115465 -0.362356
0.019200 -0.070083 -0.417438
0.014891 0.006040 -0.394917
0.018887 0.040494 -0.373907
0.023334 -0.077205 -0.451114
0.109724 -0.642839 0.183568
0.026693 -0.479647 0.151323
0.055146 -0.653716 0.179302
0.039472 -0.651558 0.210102
0.016551 -0.343874 -0.533539
0.041147 -0.510382 -0.475455
0.067157 -0.654122 -0.415419
0.029888 -0.226655 -0.511237
0.021674 -0.270522 -0.537106
0.129006 -0.072849 -0.413667
0.109852 -0.086603 -0.437665
0.058315 -0.650594 -0.465089
0.111066 -0.658984 -0.419578
0.037874 -0.479755 -0.509798
0.017706 0.054908 -0.424527
0.038183 0.092499 -0.445775
0.015480 0.185928 -0.433270
0.034973 0.146873 -0.446507
0.074588 0.527431 0.615430
0.078143 0.566309 0.636812
0.039658 0.590733 0.515860
0.042236 0.553205 0.526557
0.032419 0.602874 0.717150
0.047772 0.584039 0.704484
0.046130 0.540689 0.726768
0.053443 0.544829 0.549326
0.159373 0.187490 -0.154461
0.034963 -0.145055 -0.479493
-0.004092 0.126422 -0.293010
-0.023629 0.121554 -0.322727
-0.162768 0.156440 -0.147608
-0.192323 0.261415 -0.085155
-0.169805 0.266236 -0.132931
-0.134275 0.049912 -0.133549
-0.144182 0.045170 -0.107622
-0.170768 0.096847 -0.114249
-0.174877 0.082113 -0.091043
-0.178181 0.307399 -0.074054
-0.142090 0.384303 -0.038213
-0.150229 0.363163 -0.058209
-0.110377 0.470326 -0.040584
-0.105976 0.442748 0.021418
-0.096974 0.431998 0.056090
-0.188209 0.293892 -0.042517
-0.013529 0.444021 0.131851
-0.061320 -0.502586 0.157661
-0.082478 -0.250389 0.158937
-0.135855 -0.098509 0.202619
-0.142558 -0.021792 0.213092
-0.083690 -0.025631 0.156458
-0.105098 -0.002675 0.153095
-0.145354 0.046476 0.151169
-0.031849 -0.024877 0.180300
-0.041435 -0.170484 0.181986
-0.038550 -0.202762 0.186367
0.054163 0.422024 0.166421
0.009044 0.440657 0.178744
-0.014384 0.217015 -0.458391
-0.037973 -0.525086 0.195426
-0.040982 -0.386661 0.128346
-0.032467 -0.233478 -0.517405
-0.111521 -0.652976 -0.474640
-0.024647 -0.380216 -0.500077
-0.020420 -0.399678 -0.520777
-0.044463 -0.600869 -0.456564
-0.072304 -0.453883 -0.483792
-0.023692 0.060540 -0.428975
-0.017073 0.132065 -0.427830
-0.033385 0.216524 -0.440644
-0.003136 0.421478 0.523936
0.014731 0.445678 0.522544
0.024370 0.412329 0.525571
0.010934 0.380482 0.520444
0.005951 0.350127 0.510286
-0.051813 0.539828 0.776793
-0.055540 0.561520 0.695593
-0.031120 0.604263 0.774430
-0.072071 0.606697 0.494444
-0.186057 0.204908 -0.262402
-0.174293 0.193724 -0.333642
-0.178907 0.112072 -0.310011
-0.177123 0.143654 -0.331986
-0.172165 0.076741 -0.330873
-0.144757 0.137556 -0.396929
-0.167494 0.170736 -0.356900
0.028751 0.452708 0.111553
0.065564 0.420651 0.118088
0.095139 0.412705 0.080505
0.109813 0.413478 0.046354
0.152467 0.352924 0.004250
0.117361 0.424034 0.009112
0.068485 0.467311 0.062937
0.093034 0.496774 -0.031665
0.193530 0.280434 -0.032478
0.208837 0.230823 -0.033411
0.162818 0.152256 -0.147739
0.145826 0.127905 -0.171950
0.178420 0.091327 -0.092058
0.199502 0.259637 0.043038
0.158929 0.297374 0.101933
0.144913 0.324698 0.093114
0.211642 0.155051 -0.003971
-0.002385 0.425648 -0.218228
-0.050688 0.380843 -0.264176
-0.126051 0.355045 -0.153495
-0.160481 0.290442 -0.235015
-0.113139 0.340987 -0.284885
-0.159664 0.170360 0.304779
-0.173899 0.143853 0.274303
-0.090915 0.626139 0.503494
0.138659 0.287499 -0.330952
0.078623 0.338278 -0.332446
0.111037 -0.714122 -0.349125
0.089929 -0.697942 -0.336291
0.166394 -0.715088 -0.347223
0.154308 -0.692490 -0.383069
0.067222 -0.689180 -0.408875
0.164546 -0.717640 -0.407094
0.086111 -0.718516 -0.415959
0.056208 -0.716273 0.177051
0.143249 -0.715949 0.240980
0.087597 -0.719659 0.264817
-0.110286 -0.719315 -0.359360
-0.089923 -0.718411 -0.331077
-0.081165 -0.719137 -0.381573
-0.150129 -0.719791 -0.379287
-0.151732 -0.718219 -0.412701
-0.126400 -0.718590 -0.393173
-0.091008 -0.719389 -0.411503
-0.068296 -0.716934 -0.434642
-0.066380 -0.698933 -0.473031
-0.063443 -0.706964 -0.409083
-0.078933 -0.714023 -0.494903
-0.107398 -0.718739 0.270917
-0.074100 -0.682678 0.271632
-0.051000 -0.703071 0.256432
-0.142107 -0.717020 0.249302
-0.127772 -0.694552 0.281736
0.005583 0.524678 0.796382
0.002965 0.537570 0.769187
0.005958 0.130950 -0.319525
-0.096019 0.082545 -0.439105
-0.071124 -0.242897 -0.446882
-0.025496 0.514992 0.516166
-0.106719 -0.054503 0.175551
0.114184 0.099887 -0.210232
0.069284 -0.528022 -0.464062
0.097809 -0.544972 -0.487251
-0.055954 0.288237 0.476567
-0.026731 -0.313521 0.192836
-0.033004 -0.263177 0.192227
-0.036181 -0.234637 0.194899
-0.029089 -0.117244 -0.449280
-0.051564 -0.332123 0.189853
-0.026186 0.537818 0.767204
-0.108599 -0.661508 -0.414464
-0.092004 -0.214167 -0.452064
-0.097109 -0.192569 -0.429918
-0.124814 -0.122389 -0.380908
-0.135932 -0.094414 -0.352252
-0.152918 -0.061673 -0.359103
-0.167722 -0.010975 -0.330554
-0.165270 0.001475 -0.292720
-0.120945 -0.129913 -0.410002
-0.141832 -0.064461 -0.396043
-0.140112 -0.036896 -0.405149
-0.140718 -0.005796 -0.406580
-0.133731 0.021605 -0.414587
-0.156882 -0.011578 -0.376891
-0.164936 0.007262 -0.358809
-0.155889 0.022835 -0.383127
-0.043191 -0.411045 0.190303
-0.013116 0.279276 -0.429865
-0.011971 0.309985 -0.403460
-0.002248 0.356073 -0.358163
-0.016288 0.338815 -0.372688
-0.039017 0.319041 -0.381445
-0.031531 0.372171 -0.314125
-0.009391 0.373458 -0.328292
-0.036820 -0.316274 0.143066
-0.042687 -0.290778 0.145823
-0.058003 -0.243306 0.148061
-0.070153 -0.173525 0.151976
-0.087090 -0.132771 0.156103
-0.097907 -0.106313 0.163471
0.020137 0.611873 0.752764
0.119789 -0.676341 -0.455473
0.049600 -0.317221 0.195689
0.090007 -0.240176 0.201286
0.107963 -0.196100 0.205697
0.090433 -0.214437 0.216556
0.105175 -0.167924 0.228717
0.112300 -0.130396 0.242553
0.130567 -0.112375 0.227721
0.136366 -0.076714 0.234931
0.173617 0.087137 -0.271389
0.181122 0.129285 -0.275256
0.185525 0.179523 -0.258532
0.152217 0.297575 -0.275393
0.130592 0.326160 -0.284500
0.116356 0.347493 -0.239567
0.089855 0.371862 -0.220957
0.094481 0.360699 -0.255004
0.051027 0.408540 -0.202284
0.087837 0.379329 -0.195382
0.105180 0.368218 -0.178687
0.131999 0.334634 -0.221566
0.153497 0.304133 -0.198773
0.158067 0.292893 -0.221634
0.125588 0.345435 -0.184006
0.133575 0.341037 -0.152317
0.144971 0.321380 -0.170943
0.154443 0.309614 -0.144961
0.131421 0.314254 -0.311004
0.106639 0.334792 -0.307770
0.069082 0.370042 -0.267330
0.067003 0.381212 -0.236793
0.034322 0.387016 -0.265844
0.036097 0.398931 -0.232126
0.025305 0.420390 -0.210180
0.011279 0.401524 -0.257623
0.024633 0.339275 -0.364893
0.024703 0.380324 -0.301787
0.149140 0.291519 -0.302177
0.147882 0.249011 -0.348125
0.110764 0.234594 -0.396154
0.090151 0.225139 -0.413430
0.057157 0.245084 -0.422314
0.042422 0.226320 -0.434270
0.033261 0.252743 -0.433546
0.055210 0.330496 -0.357191
0.146046 0.182959 -0.383194
0.162206 0.182524 -0.361241
0.122938 0.184512 -0.405115
0.108293 0.152066 -0.423966
0.128810 0.144490 -0.409886
0.071881 0.142318 -0.444783
0.058069 0.112651 -0.449423
0.069499 0.088385 -0.448436
0.090836 0.033002 -0.443330
0.085059 -0.013185 -0.447500
0.113357 -0.026196 -0.433912
0.084239 -0.043614 -0.452586
0.077624 -0.083923 -0.464692
0.108347 -0.056940 -0.440687
0.079250 -0.154600 -0.480816
0.068225 0.197647 -0.434194
0.096589 0.186671 -0.422559
0.163051 0.133384 -0.365684
0.145383 0.125064 -0.395076
0.155474 0.102307 -0.382056
0.123298 0.118601 -0.418479
0.105031 0.075886 -0.434729
0.122640 0.056574 -0.422742
0.129119 0.087215 -0.416115
0.173160 0.253596 -0.256935
0.165968 0.232377 -0.327506
0.178008 0.233039 -0.274411
0.184270 0.205927 -0.274813
0.180312 0.202439 -0.303144
0.185759 0.174139 -0.287177
0.173093 0.161276 -0.342749
0.179946 0.146538 -0.318268
0.175032 0.096700 -0.314849
0.159394 0.077755 -0.373370
0.141786 0.067122 -0.402001
0.145257 0.039940 -0.397316
0.015572 0.562418 -0.104682
-0.000021 0.574351 -0.072600
0.054780 -0.073502 0.259231
0.057203 -0.130943 0.250367
0.035561 -0.275442 0.202914
0.019190 -0.349879 0.194496
0.023988 -0.378215 0.198996
0.037327 -0.504337 0.194368
0.040493 -0.622833 0.227888
0.064296 -0.525869 0.190385
0.055569 -0.478864 0.181439
0.110140 -0.616188 0.195040
0.098987 -0.647805 0.230327
0.053390 -0.390476 0.189084
0.023643 -0.475146 0.179444
0.030982 -0.603925 0.206858
0.116005 -0.646965 0.210293
0.074846 0.011068 -0.447408
0.050264 -0.004893 -0.447895
0.049473 -0.053695 -0.458625
0.057188 -0.131978 -0.483818
0.060988 -0.106057 -0.474205
0.054175 -0.165144 -0.496610
0.037181 -0.192611 -0.505956
0.160614 0.119937 -0.224426
0.176686 0.143788 -0.236146
0.165258 0.095091 -0.244146
0.157355 0.067021 -0.246801
0.154969 0.028443 -0.261591
0.148250 -0.037379 -0.301286
0.136676 -0.061308 -0.310931
0.135009 -0.084491 -0.337601
0.113505 -0.115697 -0.351039
0.095659 -0.166391 -0.392579
0.074374 -0.326098 -0.495191
0.073361 -0.269535 -0.476234
0.087434 -0.218372 -0.446394
0.082426 -0.238348 -0.474030
0.126189 -0.119047 -0.382388
0.114061 -0.145356 -0.403783
0.138717 -0.090473 -0.367960
0.150114 -0.063956 -0.355415
0.157372 -0.045005 -0.337791
0.167992 0.001286 -0.318233
0.169437 0.027815 -0.293745
0.168096 0.054718 -0.342639
0.168174 0.026991 -0.334726
0.171553 0.057089 -0.309681
0.160454 0.037656 -0.370008
0.163242 0.011885 -0.359326
0.154731 -0.033085 -0.372154
0.143035 -0.031830 -0.397950
0.151243 -0.008275 -0.385666
0.129496 -0.005040 -0.417050
0.162989 -0.017703 -0.347334
0.051365 -0.407861 -0.534693
0.050743 -0.375326 -0.541760
0.107269 -0.646040 -0.481217
0.065219 -0.482620 -0.515868
0.087943 -0.511727 -0.493455
0.069938 -0.324144 -0.532515
0.059822 -0.267048 -0.522672
0.048382 -0.301055 -0.548338
0.076622 -0.298679 -0.521228
0.072810 -0.254480 -0.502058
0.079974 -0.212263 -0.479455
0.092028 -0.178294 -0.455747
0.109284 -0.132884 -0.428561
0.087321 -0.606097 -0.432445
0.068916 -0.583064 -0.442667
0.036282 0.470353 0.635272
0.017702 0.481676 0.651518
0.037176 0.435102 0.638242
0.020441 0.516748 0.665726
0.020062 0.517892 0.827616
0.012302 0.556753 0.817098
0.061469 0.507987 0.592888
-0.038754 0.396763 0.310427
-0.055276 0.397896 0.287935
-0.073309 0.360720 0.313731
-0.035016 0.416885 0.287945
-0.060843 0.417688 0.235549
-0.099906 0.376532 0.181472
-0.083279 0.399897 0.172960
-0.121880 0.357300 0.102437
-0.118361 0.375919 0.081695
-0.104783 0.402201 0.076085
-0.136455 0.360937 0.060384
-0.172191 0.316217 0.039447
-0.160077 0.338964 0.024432
-0.177611 0.312124 0.011668
-0.162442 0.339890 -0.004871
-0.208045 0.242926 -0.018236
-0.200675 0.266907 -0.039313
-0.213371 0.211461 -0.020576
-0.209681 0.231003 -0.044374
-0.215532 0.181487 -0.026649
-0.211766 0.164568 -0.047137
-0.205725 0.137974 -0.054465
-0.196778 0.104241 -0.049642
-0.181844 0.080339 -0.064890
-0.132414 0.013454 -0.054264
-0.123539 0.018340 -0.092626
-0.146807 0.035120 -0.077294
-0.099081 -0.004900 -0.070674
-0.098779 0.006495 -0.106721
-0.059669 0.013462 -0.149930
-0.091391 0.023991 -0.145519
-0.043270 0.027834 -0.172180
-0.033741 0.045597 -0.192225
0.019157 0.026296 -0.171812
0.044617 0.044589 -0.191243
0.028572 0.071008 -0.221517
0.012317 0.093490 -0.246876
0.115886 0.078130 -0.184959
0.102948 0.050062 -0.167441
-0.080834 0.092440 -0.226457
-0.020062 0.019593 -0.161828
-0.021429 -0.012526 -0.114573
0.034273 -0.003375 -0.129921
0.014363 -0.014157 -0.112657
-0.007126 -0.022924 -0.093545
0.025315 -0.026311 -0.081022
0.005935 -0.032866 -0.059737
0.054374 -0.021397 -0.078102
0.045154 -0.028509 -0.054510
0.066460 -0.027077 -0.019789
0.086330 -0.016426 -0.038666
0.109857 -0.008501 -0.016867
0.139573 0.014774 -0.026186
0.126464 0.010710 -0.057149
0.170783 0.046580 0.012892
0.184591 0.088566 0.099657
0.187979 0.150819 0.121216
0.184770 0.123606 0.121688
0.173389 0.101659 0.138592
0.168484 0.073236 0.128300
0.149197 0.045239 0.130956
0.171996 0.060440 0.100318
0.154727 0.036153 0.099486
0.171866 0.049475 0.074676
0.161870 0.031040 0.038467
0.064868 0.025426 -0.162973
0.090787 0.011994 -0.124508
0.096223 0.030039 -0.148181
0.068919 -0.007126 -0.104818
0.104862 0.008704 -0.097704
0.088122 -0.007152 -0.077493
0.122069 0.046283 -0.143936
0.147804 0.056046 -0.116052
0.133663 0.027688 -0.087804
-0.064351 -0.019354 -0.073849
-0.097869 -0.013867 -0.032345
-0.071438 -0.022857 -0.044083
-0.121152 -0.002582 -0.021957
-0.159060 0.026400 0.017650
-0.137875 0.005915 0.012525
-0.176811 0.049989 0.010363
-0.170271 0.041033 0.051969
-0.190414 0.074779 0.025361
-0.183320 0.062867 0.056130
-0.195563 0.090084 0.051231
-0.200909 0.115427 0.065566
-0.206620 0.147916 0.066372
-0.204796 0.220372 0.070401
-0.198840 0.255982 0.061127
-0.193653 0.245115 0.087265
-0.196660 0.212206 0.100977
-0.169851 0.285488 0.098496
-0.139051 0.314202 0.130906
-0.099463 0.372946 0.212663
-0.082213 0.391136 0.235256
-0.093012 0.359506 0.269966
-0.073930 0.374132 0.291302
-0.122039 0.325625 0.267086
-0.134480 0.301515 0.293636
-0.114142 0.316155 0.310862
-0.090610 0.295171 0.369675
-0.108035 0.297685 0.347103
-0.126513 0.275641 0.343168
-0.128523 0.197360 0.379522
-0.108005 0.240448 0.387792
-0.096550 0.269252 0.383861
-0.058691 0.316524 0.370980
-0.010313 0.406020 0.313111
-0.002763 0.333486 0.377852
-0.063812 0.285935 0.396681
-0.059359 0.273342 0.421242
-0.037933 0.298578 0.401077
-0.012781 0.309457 0.400011
-0.005798 0.298249 0.426399
-0.128139 0.321207 0.177691
-0.141476 0.273669 0.197853
-0.138677 0.300073 0.164234
-0.129748 0.307661 0.205621
-0.150246 0.247233 0.202173
-0.154962 0.242488 0.171849
-0.163053 0.210627 0.162424
-0.152931 0.284882 0.138780
-0.170032 0.264800 0.121799
-0.167419 0.234975 0.145792
-0.183977 0.228200 0.118935
-0.191403 0.179683 0.120623
-0.190932 0.147064 0.118764
-0.177031 0.098325 0.132950
-0.164423 0.071508 0.138638
-0.197225 0.129331 0.094956
-0.187877 0.082637 0.085369
-0.178225 0.076969 0.113939
-0.161062 0.051796 0.120084
-0.173851 0.053954 0.086429
-0.148290 0.030091 0.106735
-0.135887 0.027023 0.131237
-0.109590 -0.003419 0.105676
-0.099701 -0.014599 0.082052
-0.094109 -0.019789 0.028812
-0.062421 -0.029841 0.038519
-0.072954 -0.027967 0.005442
-0.107560 -0.014027 0.006658
-0.035624 -0.032664 -0.044049
-0.030446 -0.027886 -0.073257
-0.122814 -0.003001 0.066058
-0.156454 0.024862 0.069535
-0.149854 0.021819 -0.019017
-0.173730 0.057008 -0.043167
-0.197718 0.092990 -0.011524
-0.205839 0.118532 0.031356
-0.211596 0.141162 0.008934
-0.211205 0.200095 0.033261
-0.207280 0.237654 0.029876
-0.084327 0.431152 0.082377
-0.050041 0.533367 0.009854
-0.023584 0.442464 0.205772
-0.036229 0.439598 0.235590
-0.032637 0.430935 0.264810
-0.016152 0.080463 -0.232627
-0.002834 0.110567 -0.269343
0.041790 0.110879 -0.259217
0.057619 0.069089 -0.211557
-0.179313 0.191670 -0.195201
-0.180293 0.155895 -0.229579
-0.172149 0.119866 -0.238814
-0.161356 0.083085 -0.242408
-0.173104 0.071261 -0.270320
-0.154651 0.040935 -0.252783
-0.164622 0.026362 -0.274649
-0.026395 -0.437624 0.185140
-0.047491 -0.210102 0.218703
-0.050081 -0.170686 0.231847
-0.055499 -0.123923 0.249439
-0.055542 -0.052250 0.265353
-0.162197 0.060096 0.256757
-0.168992 0.087387 0.265835
-0.164873 0.116667 0.280681
-0.144236 0.089577 0.296344
-0.145849 0.117424 0.304144
-0.155496 0.144023 0.301707
-0.136583 0.169081 0.363307
-0.119555 0.149001 0.379906
-0.143488 0.201192 0.354495
-0.151061 0.183040 0.330087
-0.159162 0.200390 0.308707
-0.151270 0.273232 0.290361
-0.138583 0.123383 0.340874
-0.125124 -0.023523 0.270887
-0.137565 -0.045399 0.248526
-0.131031 0.062219 0.312531
-0.133994 0.029702 0.273865
-0.142343 0.056955 0.279961
-0.154698 0.023405 0.230507
-0.039082 -0.383472 0.197881
-0.041652 -0.235773 -0.455789
-0.040135 -0.174142 -0.433533
-0.035270 -0.192522 -0.456062
-0.046359 -0.082749 -0.366463
-0.038552 -0.116498 -0.405859
-0.035145 -0.090932 -0.394177
-0.054891 -0.053319 -0.337294
-0.037628 -0.057037 -0.369504
-0.061111 -0.033596 -0.318874
-0.049899 -0.002033 -0.327071
-0.045272 -0.027747 -0.343269
-0.048473 0.050725 -0.312419
-0.022043 0.052240 -0.368447
-0.031357 0.067207 -0.343161
-0.031597 -0.215412 -0.478866
-0.016707 0.008353 -0.396177
-0.026701 0.021648 -0.367592
-0.028749 -0.007698 -0.371442
-0.038052 0.032882 -0.339684
-0.025446 -0.060101 -0.399349
-0.024295 -0.032515 -0.388261
-0.023253 -0.082977 -0.422316
-0.035975 0.097115 -0.319038
-0.054162 0.076643 -0.290510
-0.070930 0.055123 -0.264415
-0.070065 0.030345 -0.279057
-0.078373 -0.019968 -0.291711
-0.053232 -0.136385 -0.386692
-0.068464 -0.097609 -0.339843
-0.052831 -0.168913 -0.407221
-0.070463 -0.130335 -0.359596
-0.086306 -0.089216 -0.320309
-0.088563 -0.046850 -0.294499
-0.102301 -0.025430 -0.274766
-0.084728 0.005106 -0.272437
-0.106018 0.053149 -0.237326
-0.080016 0.074132 -0.246258
-0.048956 -0.210960 -0.436003
-0.040551 -0.280158 -0.472407
-0.041504 -0.307371 -0.477479
-0.033466 -0.618485 0.196724
-0.031120 -0.588666 0.197084
-0.050342 -0.318735 -0.548800
-0.046532 -0.345109 -0.551740
-0.079055 -0.315502 -0.523848
-0.075780 -0.358699 -0.512390
-0.074018 -0.383297 -0.503682
-0.084057 -0.487948 -0.490556
-0.087580 -0.518893 -0.481167
-0.108729 -0.633421 -0.425549
-0.113843 -0.608139 -0.446929
-0.067929 -0.322728 -0.486921
-0.071050 -0.294837 -0.481769
-0.074339 -0.667839 -0.448101
-0.082471 -0.534491 -0.505103
-0.067316 -0.503621 -0.512073
-0.060789 -0.364314 -0.536339
-0.063598 -0.395004 -0.527934
-0.073201 -0.461108 -0.510664
-0.103401 -0.568675 -0.490852
-0.124176 -0.620344 -0.476180
-0.037629 -0.421375 -0.533544
-0.070160 -0.563047 -0.502773
-0.092966 -0.620054 -0.492433
-0.077202 -0.644094 -0.485343
-0.039643 0.489407 0.636036
-0.032436 0.451028 0.642719
0.003639 0.507293 0.764421
0.021998 0.527733 0.711237
0.028514 0.523519 0.753278
-0.026231 0.528450 0.699676
-0.011044 0.520742 0.722297
0.001247 0.512351 0.688800
-0.010523 0.508934 0.659641
-0.069529 0.639100 0.494729
-0.071894 0.633875 0.612950
-0.074933 0.566182 0.572154
-0.076076 0.598452 0.626242
-0.077084 0.589261 0.652343
-0.070000 0.592783 0.555979
-0.079682 0.592205 0.586638
-0.062817 -0.040738 0.170935
-0.034159 -0.047027 0.216307
-0.029465 -0.032267 0.253005
-0.173711 0.216627 -0.163986
-0.163708 0.181722 -0.170047
-0.170332 0.158330 -0.196755
-0.144838 0.143433 -0.183995
-0.150849 0.104819 -0.223492
-0.095413 -0.637096 0.229993
-0.105668 -0.608721 0.198562
-0.062679 -0.408007 0.168961
-0.059007 -0.498629 0.185734
-0.074508 -0.560868 0.198276
-0.078903 -0.265546 -0.498741
-0.078361 -0.286709 -0.513917
-0.083920 -0.223747 -0.477475
-0.110401 -0.114489 -0.432439
-0.121632 -0.093699 -0.421175
-0.123319 -0.042186 -0.427085
-0.110244 -0.065928 -0.441979
-0.104966 -0.028023 -0.441505
-0.123424 0.052874 -0.421790
-0.087986 -0.063486 -0.455646
-0.077102 -0.143530 -0.481802
-0.103387 -0.158996 -0.438230
-0.065259 -0.234785 -0.508608
-0.075515 -0.200592 -0.487270
-0.077889 0.553508 0.649073
-0.082997 0.572403 0.605799
-0.080239 0.539938 0.622289
-0.073936 0.522994 0.601492
-0.053180 0.497693 0.607532
-0.008654 0.513691 0.837331
-0.046450 0.600164 0.685171
-0.051764 0.634435 0.514689
-0.077551 0.615514 0.531256
-0.044964 0.572491 0.524574
-0.052503 0.532025 0.540350
-0.043985 0.490314 0.533060
-0.040467 0.459428 0.532921
-0.056665 0.472165 0.591319
-0.048440 0.462787 0.621849
-0.044818 0.427475 0.632539
-0.047952 0.377036 0.635418
-0.044958 0.306680 0.633435
-0.051465 0.280006 0.612608
-0.034977 0.247248 0.614868
-0.026203 0.205677 0.589329
-0.017929 0.156968 0.540025
-0.042084 0.171693 0.534366
-0.057379 0.442500 0.597653
-0.065704 0.338442 0.581387
-0.069102 0.297327 0.541570
-0.060829 0.362151 0.568279
-0.049944 0.358773 0.534386
-0.041496 0.390097 0.534250
-0.047184 0.307226 0.494555
-0.024921 0.561360 0.508893
-0.049742 0.532894 0.672988
-0.058937 -0.616216 -0.483189
-0.050183 -0.580314 -0.485689
-0.041211 -0.546254 -0.479480
-0.034957 -0.477203 -0.501761
-0.051924 -0.639864 -0.431016
-0.059552 -0.524726 -0.464086
-0.074869 -0.575956 -0.446771
-0.081501 -0.601273 -0.434234
-0.011012 -0.334802 -0.523754
-0.020879 -0.309385 -0.536518
-0.053592 -0.158212 -0.493119
-0.022551 -0.275706 -0.542344
-0.030639 -0.557798 0.192969
-0.040905 -0.184259 0.211104
-0.039648 -0.147199 0.211663
-0.041489 -0.100354 0.220875
-0.045360 -0.076584 0.200883
-0.041719 -0.119417 0.190581
-0.060042 -0.144804 0.159449
-0.052977 -0.094618 0.178737
-0.023498 -0.469350 0.155567
-0.038237 -0.648273 0.197554
-0.038704 -0.572706 0.169571
-0.046705 -0.600480 0.170286
-0.049895 -0.629629 0.175303
-0.097615 -0.667465 0.196712
-0.062462 -0.655622 0.179709
-0.098823 -0.621058 0.173796
-0.084889 -0.133946 0.253265
-0.084863 -0.165865 0.240802
-0.079381 -0.063253 0.276126
-0.071385 -0.019073 0.286134
-0.077257 0.243893 0.435271
-0.073941 0.258083 0.465576
-0.086946 0.230842 0.412661
-0.085606 0.205498 0.426811
-0.081355 0.216164 0.475048
-0.081686 0.173859 0.428465
-0.075681 0.222106 0.502431
-0.069492 0.229367 0.532577
-0.068325 0.303456 0.573845
-0.060278 0.268593 0.586161
-0.063527 0.245066 0.561334
-0.055263 0.209018 0.552294
-0.056322 0.170922 0.509911
-0.064738 0.163077 0.477149
-0.064791 0.148229 0.453234
-0.064129 0.130217 0.422555
-0.050853 0.124310 0.448979
-0.043682 0.102126 0.423716
-0.046406 0.145591 0.492916
-0.032377 0.124943 0.477654
-0.023257 0.136749 0.506640
-0.016732 0.091906 0.433368
-0.077953 0.123469 0.391458
-0.058944 0.097382 0.390955
-0.105713 0.122692 0.377522
-0.175042 0.109193 0.179801
-0.182260 0.123230 0.253197
-0.165751 0.172663 0.173395
-0.166728 0.219636 0.225215
-0.154244 0.258196 0.233297
-0.107705 0.346876 0.244722
-0.123183 0.324391 0.232338
-0.136120 0.300801 0.239383
-0.178594 0.149777 0.194957
-0.181164 0.160193 0.225869
-0.174315 0.193025 0.226549
-0.165937 0.242775 0.255817
-0.062485 -0.333130 0.164845
-0.070157 -0.292993 0.192701
-0.092841 -0.236656 0.200440
-0.113481 -0.157103 0.228468
-0.102158 -0.181059 0.225504
-0.122856 -0.101820 0.247415
-0.119494 -0.127951 0.238478
-0.104160 -0.007780 0.286741
-0.107427 0.048096 0.332520
-0.115209 0.093514 0.358738
-0.092540 0.066668 0.351925
-0.086128 0.100982 0.374722
-0.057380 0.047740 0.351747
-0.049519 0.004257 0.319670
-0.044812 0.024861 0.346093
-0.087645 0.016379 0.311581
-0.102817 0.200771 0.398032
-0.025295 -0.011304 0.311900
-0.005681 -0.023020 0.289343
-0.013506 0.438658 0.159780
-0.040853 0.429018 0.147460
-0.064704 0.414269 0.162082
0.019097 0.570427 -0.049506
-0.012736 0.569885 -0.036543
-0.036956 0.563499 -0.079948
-0.013638 0.560487 -0.108682
-0.123935 0.088608 -0.421233
-0.127298 0.117084 -0.416538
-0.101078 0.109921 -0.434939
-0.106340 0.137321 -0.428971
-0.120470 0.158601 -0.415480
-0.068329 0.139784 -0.447290
-0.089445 0.157915 -0.434988
-0.057913 0.180522 -0.443354
-0.054879 0.229354 -0.429565
-0.042058 0.122222 -0.448547
-0.060881 0.075962 -0.448000
-0.083791 0.056425 -0.442916
-0.072070 0.008227 -0.447421
-0.071450 -0.027504 -0.451867
-0.008237 0.542521 -0.131798
-0.045987 0.519530 -0.135581
-0.075533 0.499674 -0.124983
-0.096130 0.425286 -0.143452
-0.125148 0.394240 -0.115028
-0.106453 0.400988 -0.141085
-0.106620 0.377899 -0.157160
-0.154422 0.306591 -0.182715
-0.156881 0.301953 -0.155880
-0.163196 0.282680 -0.195114
-0.173103 0.259257 -0.208424
-0.181874 0.233354 -0.237384
-0.174845 0.251901 -0.268043
-0.151353 0.241266 -0.350512
-0.146973 0.191034 -0.381740
-0.131051 0.212679 -0.389885
-0.130452 0.181756 -0.401103
-0.018626 0.471613 -0.181702
-0.004119 0.493383 -0.169486
-0.105726 0.193648 -0.415665
-0.111489 0.231945 -0.397743
-0.071949 0.275490 -0.402828
-0.047369 0.278576 -0.414074
-0.121048 0.258381 -0.374856
-0.138974 0.266688 -0.351580
-0.136174 0.294115 -0.329335
-0.093859 0.288454 -0.376846
-0.111569 0.315071 -0.334909
-0.068393 0.312427 -0.371199
-0.114654 0.328773 -0.310880
-0.079807 0.346387 -0.318013
-0.057209 0.358863 -0.314279
-0.115319 0.423211 -0.114571
-0.099146 0.477156 -0.104669
-0.088757 0.401125 -0.166086
-0.077715 0.434380 -0.160803
-0.043420 0.456194 -0.177838
-0.129149 0.410077 -0.088262
-0.119142 0.447468 -0.061150
-0.129683 0.415237 -0.054308
-0.108646 0.476330 -0.068131
-0.098058 0.500884 -0.064252
-0.088070 0.502573 -0.020693
-0.081811 0.526093 -0.055723
-0.062963 0.547258 -0.063705
-0.029770 0.120188 -0.295260
-0.052591 0.114422 -0.267922
-0.127855 0.066328 -0.231017
-0.123248 0.028174 -0.243495
-0.120679 0.001669 -0.256341
-0.116311 -0.119041 -0.356628
-0.138059 -0.074296 -0.325358
-0.133367 -0.044381 -0.290779
-0.139230 -0.014653 -0.272340
0.068514 -0.296916 0.191692
0.064077 -0.261793 0.211046
0.081914 -0.187698 0.232604
0.071260 -0.155626 0.244878
0.087965 -0.125267 0.255856
0.111553 -0.000797 0.284863
0.060003 -0.232275 0.219389
0.019826 -0.028361 0.214072
0.057278 -0.052562 0.179573
0.062520 0.533717 0.573817
-0.053788 0.644905 0.596794
-0.067309 0.628515 0.574893
0.029272 0.629617 0.680125
0.043455 0.644753 0.659728
-0.017062 0.650203 0.610677
-0.010583 0.652994 0.643822
-0.051597 0.647367 0.633001
0.065147 0.617629 0.553133
0.072237 0.596262 0.639395
-0.028693 0.646438 0.575919
0.027861 0.650676 0.636169
0.008444 0.650203 0.609085
-0.051804 0.634760 0.555069
-0.012314 0.646371 0.552872
-0.032204 0.638925 0.535837
-0.007646 0.642385 0.524719
0.021730 0.640367 0.528192
0.044046 0.641208 0.559351
0.047037 0.646586 0.595270
0.057250 0.644518 0.628538
0.066556 0.630348 0.579545
-0.003544 0.610802 0.777928
-0.020089 0.591281 0.803494
0.027030 0.603327 0.786145
0.003128 0.633156 0.699224
-0.003653 0.649135 0.676335
-0.039900 0.649028 0.659306
0.063601 0.614227 0.493685
-0.020338 0.591815 0.502765
0.019564 0.570024 0.506290
0.021158 0.540434 0.511088
-0.011110 0.323012 0.489907
-0.017805 0.302275 0.465381
0.022178 0.296944 0.459227
0.020034 0.324407 0.494012
0.047382 0.287189 0.463531
0.040697 0.305267 0.485911
0.060864 0.315340 0.531625
0.040629 0.359424 0.527384
0.033100 0.338534 0.512649
0.032788 0.286377 0.437405
0.059321 0.271329 0.432590
0.042696 0.250605 0.605919
0.045312 0.273854 0.616352
0.060814 0.284174 0.588225
0.045876 0.348309 0.635917
0.052848 0.325363 0.623692
0.054230 0.371411 0.622244
0.052133 0.402024 0.623988
0.130317 -0.649832 -0.439685
0.129906 -0.632699 -0.463546
0.071136 -0.401326 -0.495740
0.071660 -0.431109 -0.501633
0.009463 -0.310949 -0.523958
0.060435 -0.539749 -0.505613
0.050230 -0.510948 -0.509189
0.023146 -0.367322 -0.552199
0.023038 -0.338702 -0.559320
0.040507 -0.422198 -0.483009
0.035247 -0.363061 -0.485122
0.034793 -0.624402 0.190235
0.039216 -0.590056 0.172748
0.032854 -0.563249 0.171065
0.034128 -0.016057 0.284558
0.047602 0.464156 0.547446
0.050932 0.502553 0.548074
0.037868 0.514129 0.525461
0.036897 0.484770 0.527991
0.039015 0.435592 0.536783
0.063774 0.321571 0.574738
0.055338 0.072873 0.371261
0.063358 0.123416 0.408560
0.087142 0.185203 0.409356
0.091262 0.214730 0.407489
0.067618 0.146722 0.437172
0.064923 0.162987 0.473657
0.076475 0.192885 0.470790
0.082253 0.192275 0.437408
0.075401 0.240846 0.511281
0.070143 0.278388 0.537221
0.078226 0.243346 0.440585
0.074643 0.259465 0.485374
0.070456 0.276989 0.508168
0.053851 0.372103 0.549856
0.066052 0.300777 0.556160
0.054717 0.478247 0.574590
0.055574 0.438274 0.577729
0.057679 0.414293 0.593898
0.048830 0.026082 0.342551
0.036427 0.041310 0.364985
0.026276 0.059186 0.384328
0.025910 0.002591 0.334038
-0.009038 -0.000980 0.333041
0.046223 -0.000811 0.313569
0.042395 0.107495 0.432095
0.035543 0.116823 0.458634
0.041518 0.137352 0.485234
0.016684 0.100070 0.447013
0.005929 0.123247 0.494965
0.083330 0.006278 0.302625
0.089115 0.070070 0.354208
0.091139 0.096673 0.370089
0.100043 0.147570 0.389192
0.113475 0.206023 0.389481
0.113024 0.067578 0.340969
0.106506 0.031420 0.318852
-0.023070 0.315937 0.649098
-0.018603 0.368475 0.656155
-0.003545 0.454663 0.654961
-0.014492 0.480505 0.653804
-0.018987 0.423662 0.653740
-0.034141 0.347553 0.648593
0.008433 0.335097 0.655711
0.011395 0.309006 0.650491
0.026267 0.285780 0.637928
0.020215 0.255529 0.627904
0.025664 0.186681 0.568750
0.007160 0.211247 0.604028
0.045319 0.181258 0.540919
0.044997 0.155772 0.508334
0.062511 0.176163 0.500431
0.051903 0.226855 0.571904
0.059602 0.215214 0.546658
0.043842 -0.037957 0.264571
0.071674 -0.056707 0.275489
0.028434 -0.040737 0.240603
0.043565 -0.332178 -0.481172
0.061505 -0.217659 -0.425604
0.065074 -0.249525 -0.451385
0.093847 -0.141228 -0.365120
0.101377 -0.101893 -0.329155
0.115265 -0.078290 -0.311574
0.121008 -0.044922 -0.285631
0.133150 0.007110 -0.256744
0.118262 0.051588 -0.234256
0.134340 0.080227 -0.227895
0.055962 -0.170470 -0.398758
0.068160 -0.156431 -0.378796
0.079008 -0.083050 -0.319801
0.079568 -0.119630 -0.345686
0.080030 -0.036723 -0.294715
0.091417 -0.063601 -0.300873
0.086623 0.029892 -0.256031
0.100483 0.001638 -0.261067
0.095860 0.063546 -0.237181
0.096284 0.092978 -0.229977
0.062234 -0.011145 -0.304394
0.176782 0.172682 -0.209420
0.168798 0.259122 -0.147610
0.173642 0.241387 -0.168892
0.177899 0.257593 -0.114588
0.165884 0.283082 -0.127128
0.180024 0.285423 -0.092489
0.162350 0.309982 -0.113099
0.182986 0.300121 -0.051145
0.164862 0.325407 -0.085726
0.146501 0.368593 -0.026709
0.135227 0.393449 -0.052282
0.130907 0.405216 -0.024342
0.123295 0.430075 -0.050537
0.106780 0.477529 -0.052113
0.073989 0.535984 -0.070237
0.067223 0.538545 -0.038814
0.037968 0.557517 -0.028946
0.046849 0.549660 -0.098230
0.069179 0.527597 -0.102903
0.147679 0.348665 -0.102347
0.139692 0.375660 -0.093660
0.131837 0.400058 -0.081568
0.118495 0.421778 -0.106362
0.110866 0.461596 -0.080727
0.098566 0.477870 -0.101219
0.077847 0.503117 -0.115866
0.062929 0.497524 -0.138655
0.040741 0.468081 -0.172622
0.070966 0.428623 -0.168007
0.103022 0.413635 -0.138430
0.130349 0.362273 -0.129595
0.041701 0.524156 -0.135339
0.021869 0.545901 -0.126066
0.031845 0.494995 -0.162294
0.003358 0.521573 -0.150637
0.012672 0.472132 -0.182484
0.010784 0.245948 -0.459694
0.015983 0.305128 -0.405121
0.010766 0.270563 -0.438809
0.010382 0.326198 -0.389661
0.156549 0.136299 -0.202504
0.161394 0.167217 -0.180155
0.022737 -0.291311 0.159698
0.029809 -0.257077 0.169124
0.037870 -0.170876 0.187188
0.061014 -0.084328 0.174109
0.054029 -0.139161 0.164219
0.049049 -0.174631 0.163153
0.038534 -0.229628 0.163031
0.057450 -0.204546 0.150070
0.005320 -0.389685 0.179863
0.036963 -0.200140 0.179924
0.039027 -0.214845 0.206779
0.037258 -0.138091 0.200897
0.039132 -0.107074 0.206934
0.045631 -0.096836 0.243763
0.033795 -0.246197 0.200267
0.019195 -0.315792 0.181216
0.010995 -0.330967 0.161898
0.013151 -0.418567 0.176148
0.010583 -0.026665 0.262503
0.130574 -0.101847 0.193867
0.106771 -0.155756 0.166948
0.104241 -0.192549 0.173119
0.081220 -0.235721 0.154577
0.074166 -0.274995 0.157869
0.096582 -0.229125 0.176755
0.068358 -0.305253 0.161539
0.061724 -0.345147 0.154430
0.062792 -0.371421 0.148101
0.061967 -0.405038 0.154924
0.048719 -0.428216 0.148968
0.077348 -0.542034 0.170547
0.067126 -0.512271 0.165221
0.087753 -0.256812 0.176074
0.119782 -0.163965 0.198711
0.127203 -0.132345 0.198532
0.142295 -0.011716 0.226553
0.158841 0.080582 0.158443
0.148120 0.052030 0.161632
0.070451 0.275529 0.400295
0.077531 0.294496 0.378081
0.094685 0.301439 0.356752
0.132457 0.280284 0.323545
0.092106 0.362958 0.255714
0.097073 0.374525 0.213207
0.083840 0.383927 0.239841
0.088669 0.391574 0.185020
0.084582 0.394478 0.142232
0.098482 0.374000 0.159961
0.131813 0.315400 0.156906
0.123494 0.334752 0.133629
0.139038 0.315511 0.122727
0.199597 0.227518 0.080049
0.209667 0.189812 0.044875
0.204109 0.188858 0.076610
0.194439 0.101361 -0.046848
0.181571 0.080718 -0.064753
0.163431 0.064135 -0.091044
0.179811 0.068817 -0.038398
0.199848 0.104550 0.013680
0.196490 0.099878 0.045993
0.202570 0.133456 0.064436
0.197197 0.171737 0.100831
0.164888 0.158452 0.161523
0.166739 0.192582 0.157755
0.158327 0.231843 0.160783
0.173733 0.220435 0.138236
0.192760 0.207227 0.106038
0.154692 0.256618 0.153972
0.169996 0.259162 0.122711
0.113203 0.344583 0.204066
0.147657 0.254413 0.181148
0.127202 0.315075 0.190731
0.109598 0.343224 0.235559
0.124582 0.321210 0.235010
0.141139 0.291845 0.246351
0.147832 0.264316 0.224849
0.158798 0.225888 0.211751
0.162879 0.236111 0.237765
0.143317 0.029468 0.187366
0.157697 0.033335 0.210494
0.174966 0.076646 0.242256
0.172164 0.055134 0.220987
0.117443 0.128432 0.372561
0.136921 0.151563 0.355328
0.130646 0.091496 0.335948
0.134073 0.116942 0.342128
0.138166 0.056523 0.281340
0.163455 0.081078 0.269323
0.156501 0.055122 0.258657
0.139626 0.028749 0.261094
0.124178 0.033141 0.296688
0.183729 0.103879 0.233695
0.144649 0.187619 0.347798
0.134311 0.206593 0.367877
0.120491 0.230282 0.379817
0.106260 0.255104 0.381931
0.037447 0.290000 0.411495
0.012885 0.306592 0.402919
0.140634 0.235452 0.344598
0.157551 0.199315 0.310081
0.173108 0.198862 0.244715
0.178393 0.170338 0.236146
0.170661 0.193026 0.212693
0.182839 0.138446 0.219121
0.181270 0.093975 0.209645
0.173871 0.066733 0.196328
0.166314 0.205689 0.281098
0.171893 0.180991 0.269149
0.167174 0.229943 0.265037
0.178229 0.127846 0.259971
0.165367 0.122239 0.282313
0.118572 0.007087 0.171362
0.096760 -0.006604 0.146023
0.157306 0.261372 0.255876
0.110731 0.302582 0.335481
0.120864 0.310116 0.305342
0.090086 0.333162 0.322361
0.090476 0.348771 0.295363
0.103113 0.343362 0.272953
0.124671 0.316771 0.279618
0.070569 0.317414 0.363201
0.038286 0.362864 0.343187
0.051956 0.335493 0.358507
0.009059 0.370878 0.345356
0.026893 0.407114 0.305367
0.037536 0.385226 0.323633
0.062095 0.367839 0.316763
0.067662 0.347841 0.334641
0.020298 0.347511 0.361843
0.014535 0.524641 0.050908
0.006655 0.547786 0.025154
0.034649 0.549642 -0.002028
0.116237 0.009836 0.131685
0.130148 0.009487 0.095428
0.152493 0.022756 0.070942
0.124005 -0.001172 0.065704
0.106112 -0.013758 0.011296
0.095064 -0.018924 0.036441
0.067330 -0.029009 0.028657
0.068366 -0.026916 0.057100
0.046538 -0.019182 0.112598
0.077463 -0.021248 0.103075
0.069145 -0.026410 0.139099
0.023261 -0.019741 0.168441
-0.004487 -0.023323 0.192683
-0.011074 -0.029590 0.233380
-0.020821 -0.014406 0.146905
0.018106 -0.023903 0.086360
0.039448 -0.031736 0.052544
0.013364 -0.031772 0.055318
-0.010212 -0.036933 0.002782
0.026292 -0.035795 -0.029696
-0.005824 -0.036568 -0.026813
-0.051552 -0.022902 0.095449
-0.045346 -0.028577 0.065788
0.035019 0.420691 0.278423
0.064762 0.419274 0.193653
0.048678 0.431870 0.218771
0.044377 0.429795 0.248375
0.009221 0.116014 -0.492694
-0.002995 -0.033421 -0.486940
0.005823 0.030575 -0.484284
0.053721 -0.354684 0.189668
0.034891 -0.450646 0.185003
0.098182 -0.074019 0.170877
0.080014 -0.098405 0.163247
0.088885 -0.131350 0.156899
0.081603 -0.170041 0.151562
0.051132 -0.258520 0.144725
0.027829 -0.366089 0.130351
0.016734 -0.428453 0.146782
0.039485 -0.155468 -0.421248
0.038932 -0.219851 -0.452007
0.035343 -0.080607 -0.382857
0.043185 -0.111923 -0.386101
0.036119 -0.042931 -0.361927
0.042574 0.020329 -0.333036
0.048997 -0.015573 -0.330591
0.055487 0.017752 -0.306323
0.036909 0.085321 -0.319958
0.042820 0.106934 -0.297059
0.023677 0.121583 -0.284439
0.026888 0.104303 -0.334587
0.010835 0.127042 -0.368420
0.067533 0.030998 -0.275426
0.071957 0.056617 -0.257882
0.061703 -0.041428 -0.318646
0.051543 -0.058543 -0.341618
0.058763 -0.084307 -0.341680
0.020318 -0.048314 -0.400856
0.022016 -0.021310 -0.386500
0.032703 -0.012460 -0.359924
0.028134 0.018057 -0.361080
0.032542 0.041887 -0.346523
0.013422 0.077406 -0.378563
0.030384 -0.115680 -0.463824
0.015475 -0.045068 -0.432469
0.013166 -0.019894 -0.421468
0.010875 0.033106 -0.401898
0.006700 0.128538 -0.411277
0.001049 0.160963 -0.396860
0.031103 -0.129482 -0.427640
0.085696 -0.654231 0.177109
0.061609 -0.672278 0.206935
0.037344 -0.537590 0.158430
0.059100 -0.612094 0.166181
0.082380 -0.627774 0.168170
0.084827 -0.581499 0.169451
0.051791 -0.464649 0.149745
0.049348 -0.397759 0.133408
0.102144 -0.675162 0.249945
0.075476 -0.632982 0.234477
0.070707 -0.605126 0.221703
0.057208 -0.567017 0.158924
0.039817 -0.511093 0.151933
0.049433 -0.652523 0.234985
0.037973 -0.251451 -0.463755
0.028908 -0.275465 -0.480613
0.016162 -0.304760 -0.489753
0.010548 -0.342695 -0.502248
0.025758 -0.405145 -0.500429
0.016227 -0.384686 -0.522708
0.034938 -0.451665 -0.489271
0.038162 -0.483546 -0.482607
0.038686 -0.536691 -0.477418
0.030275 -0.222513 -0.480401
0.026822 -0.258117 -0.504518
0.014841 -0.294083 -0.552629
0.090698 -0.144652 -0.458015
0.100807 -0.108852 -0.447983
0.077152 -0.183575 -0.484556
0.120922 -0.106701 -0.415144
0.110681 -0.622778 -0.433617
0.100512 -0.588667 -0.451197
0.087844 -0.565979 -0.457053
0.060883 -0.624488 -0.482897
0.044707 -0.626787 -0.456274
0.045892 -0.598185 -0.474379
0.042438 -0.567030 -0.479440
0.026806 -0.427984 -0.525204
0.037489 -0.028198 -0.448644
0.024430 0.004023 -0.433943
0.040261 0.049119 -0.443568
0.018395 0.089809 -0.427123
0.027971 0.115981 -0.439697
0.010596 0.152384 -0.424770
-0.035457 0.515767 0.779690
0.076574 0.595065 0.579831
0.079379 0.556412 0.600791
0.068356 0.518793 0.646685
0.081379 0.632802 0.509352
0.054718 0.634340 0.523697
0.090527 0.642536 0.474004
0.072152 0.605410 0.608323
0.040626 0.528921 0.805538
0.042254 0.589538 0.759312
0.048924 0.581603 0.730714
0.060308 0.574298 0.677477
0.067970 0.545700 0.664083
0.054759 0.553460 0.776663
0.051707 0.550628 0.693463
0.049362 0.498722 0.615446
0.064447 0.576327 0.554002
0.129665 0.116643 -0.196609
0.031034 -0.144819 -0.452024
0.032384 -0.183686 -0.479261
-0.012348 0.129404 -0.348593
-0.109600 0.087008 -0.202212
-0.103767 0.065361 -0.184761
-0.126954 0.084569 -0.179602
